# .PCD v0.7 - Point Cloud Data file format
VERSION 0.7
FIELDS x y z
SIZE 4 4 4
TYPE F F F
COUNT 1 1 1
WIDTH 1432
HEIGHT 1
VIEWPOINT 0 0 0 1 0 0 0
POINTS 1432
DATA ascii
0.55652839 0.61591315 -0.33190838
0.57016462 0.61982393 -0.33401588
0.56929028 0.6079483 -0.32761621
0.58879375 0.61771339 -0.3328785
0.61762542 0.63659555 -0.34305385
0.61603975 0.62385404 -0.33618763
0.6288268 0.625691 -0.33717754
0.63165963 0.61756545 -0.33279878
0.64924258 0.62372309 -0.33611706
0.6683588 0.63094437 -0.34000853
0.69042003 0.64047277 -0.34514326
0.68632281 0.62564576 -0.33715317
0.71212423 0.63793033 -0.34377319
0.72266352 0.63617027 -0.3428247
0.7389279 0.63923275 -0.34447503
0.75818461 0.64453924 -0.34733462
0.76889724 0.642326 -0.34614196
0.77450401 0.63579446 -0.34262216
0.77561623 0.62565738 -0.3371594
0.81002831 0.64205885 -0.34599799
0.80812365 0.62939519 -0.3391737
0.83395457 0.63817912 -0.34390727
0.84633231 0.63632202 -0.34290648
0.85950232 0.63488889 -0.34213418
0.87039304 0.63162166 -0.34037352
0.89838123 0.64042312 -0.3451165
0.90156507 0.63130522 -0.34020296
0.93379319 0.64224046 -0.34609583
0.93219066 0.62968349 -0.33932903
0.9703427 0.64368981 -0.34687689
0.9790982 0.63778192 -0.34369317
0.99347347 0.63541043 -0.34241521
1.0168308 0.63848948 -0.34407449
1.0354087 0.6382277 -0.3439334
1.0441684 0.63174504 -0.34044001
1.0769204 0.63945216 -0.34459326
1.1015637 0.64184403 -0.34588221
1.1271738 0.64438468 -0.34725136
1.1436393 0.64137703 -0.34563056
1.1669147 0.64189708 -0.34591079
1.1936967 0.64394736 -0.34701568
1.2231783 0.64699453 -0.34865776
1.2485011 0.64740276 -0.34887776
1.2643975 0.64262885 -0.34630513
1.3081449 0.65153116 -0.35110247
1.3259238 0.64700532 -0.34866357
1.3621668 0.6510765 -0.3508575
1.3791645 0.64554691 -0.34787765
1.4130085 0.64752853 -0.34894553
1.4398668 0.64584106 -0.3480362
1.4802216 0.64968151 -0.35010576
1.514468 0.65024871 -0.35041139
1.5569596 0.65374911 -0.35229772
1.5833197 0.64994842 -0.35024956
1.6342905 0.65564847 -0.35332125
1.6663069 0.65309441 -0.35194492
1.7038976 0.65220368 -0.35146493
1.7434361 0.65147227 -0.35107076
1.7904783 0.65287703 -0.3518278
1.8460228 0.65657556 -0.35382086
1.9008428 0.65914637 -0.35520625
1.959585 0.66218567 -0.35684407
2.022275 0.66560435 -0.35868636
2.0710821 0.66359264 -0.3576023
2.1265988 0.6629377 -0.35724935
2.1898205 0.66377199 -0.35769895
2.2418368 0.6603322 -0.3558453
2.3196263 0.66348755 -0.35754567
2.413857 0.66999674 -0.36105338
2.5016925 0.67330509 -0.36283621
2.5667598 0.66931283 -0.36068481
2.6626942 0.67213559 -0.36220598
2.7646551 0.67494524 -0.36372006
2.8997087 0.68398452 -0.36859122
0.0035953326 0.37428647 -0.17216483
0.0070507722 0.36697683 -0.16880254
0.010863434 0.37689698 -0.17336562
0.016996054 0.44216841 -0.20338927
0.028745174 0.59812957 -0.27512851
0.036373489 0.63053995 -0.29003671
0.043161318 0.64110929 -0.29489839
0.049387582 0.64164895 -0.29514661
0.056804385 0.65572411 -0.30162093
0.061793424 0.64167321 -0.29515776
0.068338029 0.64477611 -0.29658505
0.074424274 0.64330626 -0.29590896
0.081393115 0.6490103 -0.29853269
0.087258466 0.64563519 -0.2969802
0.093978874 0.64852166 -0.29830796
0.10145719 0.6558488 -0.3016783
0.10568373 0.6424402 -0.29551056
0.11404072 0.65414023 -0.30089238
0.11883428 0.64514697 -0.29675564
0.12572128 0.64775896 -0.29795712
0.13321416 0.65299064 -0.30036357
0.13738248 0.6420998 -0.29535401
0.144143 0.64365691 -0.29607025
0.15115178 0.64604425 -0.29716837
0.16146393 0.66167355 -0.30435756
0.16691366 0.65682739 -0.30212843
0.17111541 0.64752853 -0.29785112
0.1770868 0.64526576 -0.2968103
0.18678346 0.65615106 -0.30181733
0.19411427 0.65815544 -0.30273929
0.19989431 0.65484059 -0.30121452
0.20507419 0.64973766 -0.29886726
0.21414758 0.65679789 -0.30211484
0.22074065 0.65594387 -0.30172202
0.22342442 0.64377147 -0.29612294
0.23547098 0.65839231 -0.30284825
0.24400732 0.6625312 -0.30475208
0.24938524 0.65799445 -0.30266526
0.25836655 0.66284341 -0.30489567
0.26438162 0.6599161 -0.30354917
0.27141076 0.65949684 -0.30335632
0.27450991 0.64968663 -0.2988438
0.28257254 0.65171194 -0.29977542
0.29406628 0.66123968 -0.304158
0.30385074 0.66643727 -0.30654877
0.30945915 0.66233033 -0.30465969
0.31142315 0.65068716 -0.29930404
0.3205086 0.65400308 -0.30082929
0.33631635 0.67045116 -0.30839512
0.33893996 0.66034895 -0.30374828
0.35431078 0.6748566 -0.31042153
0.35332727 0.65814048 -0.30273244
0.35785079 0.65206206 -0.29993644
0.37363434 0.66619921 -0.30643928
0.37586355 0.65595907 -0.30172899
0.38449737 0.65696496 -0.3021917
0.39508763 0.66107726 -0.30408329
0.40530103 0.66427654 -0.3055549
0.40575719 0.6515494 -0.29970065
0.41600019 0.65460205 -0.30110478
0.42582488 0.65675855 -0.30209675
0.44087279 0.666596 -0.30662182
0.44307899 0.65687841 -0.30215189
0.45997012 0.66874957 -0.30761242
0.46583897 0.66431129 -0.30557087
0.47710401 0.66745013 -0.30701467
0.47632185 0.65379369 -0.30073297
0.49264917 0.66354966 -0.30522054
0.51146507 0.67609042 -0.31098905
0.51793981 0.67200977 -0.30911204
0.5296014 0.67453456 -0.31027338
0.52724367 0.65928531 -0.30325902
0.54307348 0.66676503 -0.30669954
0.55788279 0.67259192 -0.30937982
0.55458194 0.65661126 -0.30202901
0.58056909 0.67509848 -0.31053278
0.58827662 0.67189199 -0.30905786
0.60225993 0.67567497 -0.31079796
0.61826837 0.68138975 -0.31342664
0.62029034 0.67159051 -0.30891916
0.63321221 0.67355549 -0.30982304
0.64556247 0.67468059 -0.31034055
0.64738011 0.66477388 -0.30578366
0.67448401 0.68054563 -0.31303835
0.67626619 0.67048365 -0.30841005
0.69222873 0.67439872 -0.31021088
0.70487553 0.67481601 -0.31040287
0.72105581 0.67835128 -0.312029
0.7387588 0.68297666 -0.31415662
0.75024068 0.68159056 -0.313519
0.76888436 0.68644178 -0.31575051
0.78192282 0.68599981 -0.3155472
0.79718685 0.68727899 -0.31613559
0.81619126 0.6914658 -0.31806144
0.81837833 0.68128598 -0.31337893
0.83901095 0.68632209 -0.31569543
0.85081422 0.68385816 -0.31456208
0.86263353 0.68125904 -0.31336653
0.89119631 0.69150472 -0.31807935
0.89244223 0.68032509 -0.31293693
0.91900539 0.68824863 -0.31658161
0.9380157 0.69008428 -0.31742597
0.95947808 0.69336683 -0.3189359
0.96373773 0.68405575 -0.31465295
0.98217201 0.68468499 -0.31494239
0.99829495 0.68343318 -0.31436658
1.0176834 0.68413895 -0.31469122
1.0412054 0.6872586 -0.31612623
1.0713766 0.69427717 -0.31935462
1.0976644 0.69826305 -0.32118806
1.0993849 0.68644667 -0.31575274
1.1167142 0.68430883 -0.31476939
1.1465936 0.68946958 -0.31714323
1.1607206 0.68480629 -0.31499818
1.1976163 0.69315088 -0.31883657
1.2118613 0.68796265 -0.31645006
1.2542342 0.69826573 -0.32118928
1.2788941 0.69812173 -0.32112303
1.2958907 0.69348925 -0.3189922
1.3224212 0.69363672 -0.31906003
1.3499221 0.69386297 -0.3191641
1.3749025 0.69238377 -0.31848371
1.4315933 0.70616651 -0.3248235
1.4462684 0.6986286 -0.32135621
1.4919524 0.70559388 -0.32456011
1.5173842 0.70240027 -0.32309109
1.5491315 0.70169401 -0.32276624
1.5827764 0.70133358 -0.32260045
1.6138226 0.69931889 -0.32167372
1.6485739 0.69840026 -0.32125118
1.689798 0.69962019 -0.3218123
1.7448717 0.70578134 -0.32464635
1.8011059 0.7114833 -0.32726914
1.8244405 0.70356673 -0.32362765
1.8911811 0.71167409 -0.32735687
1.9341053 0.70992661 -0.32655308
1.9929541 0.71321207 -0.32806432
2.0389395 0.71105903 -0.32707399
2.0943987 0.71141171 -0.32723621
2.1669309 0.71653104 -0.32959098
2.2246335 0.71570051 -0.32920897
2.296664 0.71844506 -0.33047143
2.3736537 0.72154188 -0.33189589
2.4223404 0.71504873 -0.32890916
2.5139973 0.72013122 -0.331247
2.5973232 0.72142243 -0.33184096
2.6894886 0.72376794 -0.33291984
2.7943871 0.72796059 -0.33484837
2.8908906 0.72835809 -0.33503124
0.0032811773 0.34158182 -0.1571213
0.0072951061 0.37969387 -0.17465214
0.01115138 0.38688704 -0.17796087
0.016507462 0.42945725 -0.19754237
0.029530324 0.61446697 -0.28264344
0.038466927 0.66683006 -0.30672947
0.045786403 0.68010175 -0.31283417
0.052666135 0.68424428 -0.31473967
0.059158161 0.682895 -0.31411904
0.065541118 0.68058991 -0.31305873
0.071788475 0.67733145 -0.31155992
0.079546168 0.68757868 -0.31627345
0.085355237 0.68060333 -0.3130649
0.092864454 0.68711448 -0.31605995
0.099199921 0.68455064 -0.31488061
0.10758082 0.69543368 -0.3198866
0.11085706 0.67388839 -0.30997616
0.11732585 0.67298377 -0.30956006
0.12527113 0.68009233 -0.31282988
0.1333618 0.68712556 -0.31606501
0.13941017 0.68336225 -0.31433398
0.14425159 0.67420471 -0.31012169
0.15291519 0.68282831 -0.31408837
0.1584287 0.67714679 -0.31147498
0.16817357 0.68916935 -0.31700513
0.17321229 0.68161333 -0.31352949
0.17998636 0.68109763 -0.31329226
0.18555407 0.67611867 -0.31100205
0.19754979 0.69397211 -0.31921428
0.20032592 0.67921644 -0.31242695
0.20951487 0.6863569 -0.31571144
0.21913171 0.69427609 -0.31935412
0.22664425 0.69512558 -0.31974488
0.22921942 0.68113911 -0.31331137
0.23605408 0.68016237 -0.31286207
0.2431964 0.67999303 -0.31278419
0.25289184 0.68665463 -0.31584838
0.26175684 0.69063652 -0.31768
0.26470888 0.6791147 -0.31238019
0.28114063 0.70174778 -0.32279098
0.28261742 0.6867277 -0.31588203
0.2881279 0.68191653 -0.31366897
0.3019971 0.69651186 -0.32038254
0.30642828 0.68903708 -0.31694427
0.31571391 0.69245678 -0.3185173
0.32508841 0.69578141 -0.32004654
0.33415183 0.69817644 -0.32114822
0.33921847 0.69218087 -0.31839037
0.34751308 0.69277197 -0.31866229
0.36007088 0.70151782 -0.32268518
0.35947689 0.6846965 -0.31494769
0.37130052 0.69161916 -0.31813198
0.38149929 0.69515342 -0.3197577
0.38316813 0.68319815 -0.31425849
0.39571872 0.69061041 -0.31766799
0.41078779 0.70188564 -0.3228544
0.41560546 0.69540852 -0.31987503
0.42420858 0.69526553 -0.31980926
0.44022685 0.70689946 -0.32516065
0.43650019 0.68686002 -0.31594288
0.44511133 0.68650436 -0.3157793
0.4583841 0.69307297 -0.31880072
0.46502393 0.68941247 -0.31711698
0.48593619 0.7065016 -0.32497764
0.48733097 0.69496 -0.31966871
0.49180928 0.68802232 -0.31647751
0.50336677 0.69091523 -0.31780821
0.51781291 0.69744271 -0.32081071
0.53128934 0.70229554 -0.32304293
0.54375076 0.70549864 -0.3245163
0.54586107 0.6952439 -0.3197993
0.55957186 0.69970971 -0.32185349
0.5692457 0.69889826 -0.32148024
0.58556634 0.70596761 -0.32473201
0.58623755 0.69409072 -0.31926888
0.59719199 0.69442791 -0.31942397
0.61442226 0.70175385 -0.32279375
0.62680346 0.70321029 -0.32346371
0.63417029 0.69891518 -0.32148802
0.66207159 0.71682709 -0.32972717
0.66763294 0.71016932 -0.32666472
0.66918057 0.69936401 -0.32169449
0.68249899 0.7008363 -0.32237172
0.69857275 0.70485079 -0.3242183
0.71545047 0.70933282 -0.32627994
0.7208727 0.7023049 -0.32304722
0.74617678 0.71435601 -0.32859051
0.77037656 0.724751 -0.33337203
0.78151429 0.72250378 -0.33233833
0.79125291 0.71884996 -0.33065766
0.79313493 0.70809215 -0.32570925
0.81860918 0.71818566 -0.3303521
0.83127952 0.71667129 -0.3296555
0.85495299 0.7243042 -0.33316651
0.87219954 0.72609127 -0.33398852
0.86650735 0.70881444 -0.32604152
0.88975984 0.7151615 -0.32896104
0.91546327 0.72298098 -0.33255783
0.92693537 0.71923566 -0.33083507
0.94453335 0.72003514 -0.33120281
0.96761775 0.72465467 -0.33332774
0.96832442 0.71238202 -0.32768252
0.99860859 0.72164446 -0.33194306
1.0173224 0.72208989 -0.33214799
1.0289799 0.71731538 -0.32995179
1.0581926 0.7244392 -0.33322859
1.0659148 0.71656251 -0.32960549
1.0881284 0.71823072 -0.33037281
1.1275506 0.73067921 -0.33609891
1.1263347 0.71650124 -0.3295773
1.1562496 0.72195256 -0.33208477
1.1730888 0.71885455 -0.33065975
1.2124707 0.7290827 -0.33536452
1.2227823 0.72142166 -0.33184057
1.2499067 0.7234152 -0.33275756
1.2822492 0.72792131 -0.33483028
1.3156242 0.73244321 -0.33691031
1.3491818 0.73649037 -0.33877191
1.3527583 0.72392166 -0.33299056
1.3917032 0.72997659 -0.3357757
1.4352169 0.73770475 -0.33933049
1.4667376 0.73863083 -0.33975649
1.4860801 0.73304331 -0.33718634
1.5160213 0.73232311 -0.33685505
1.5478342 0.73202217 -0.33671662
1.5824277 0.73250902 -0.33694059
1.6243061 0.73574507 -0.33842909
1.6564776 0.73399085 -0.3376222
1.6833216 0.72943497 -0.33552656
1.7310479 0.73333943 -0.33732253
1.7780643 0.73616469 -0.33862212
1.828918 0.73977715 -0.34028375
1.8653001 0.73684168 -0.3389335
1.9238549 0.74190432 -0.34126225
1.9761781 0.74365944 -0.34206957
2.0379498 0.74804342 -0.34408611
2.0878568 0.74717456 -0.34368643
2.1500354 0.74980265 -0.3448953
2.2142928 0.75213659 -0.34596887
2.2721763 0.75133216 -0.34559888
2.3302093 0.74966598 -0.34483245
2.4120176 0.75453007 -0.34706986
2.4827108 0.75469303 -0.34714481
2.5583415 0.75519478 -0.3473756
2.6389341 0.75591922 -0.34770882
2.7273805 0.75754666 -0.34845743
2.8265998 0.76066583 -0.3498922
2.9433825 0.76677513 -0.35270235
0.003455708 0.36315435 -0.15787011
0.0073649152 0.38695359 -0.16821609
0.011884334 0.41621682 -0.18093736
0.021463191 0.56366765 -0.24503706
0.032147486 0.67525297 -0.29354534
0.041031387 0.71801424 -0.31213447
0.048045199 0.72040468 -0.31317362
0.055874936 0.73280072 -0.31856245
0.062610358 0.72958291 -0.31716359
0.070247531 0.73636287 -0.32011095
0.075238921 0.71660239 -0.3115207
0.081950322 0.71506089 -0.31085059
0.089543752 0.72075623 -0.31332645
0.097617358 0.72911465 -0.31696004
0.10481254 0.73012412 -0.31739885
0.1128694 0.73652285 -0.32018051
0.11736068 0.72017223 -0.31307259
0.12702478 0.73550993 -0.31974018
0.13088275 0.71727961 -0.31181508
0.13822395 0.71891433 -0.31252575
0.14651735 0.7249946 -0.31516895
0.15379204 0.72559494 -0.31542993
0.16128865 0.72703254 -0.31605488
0.16632934 0.71764058 -0.31197202
0.17445031 0.72165424 -0.31371683
0.18715926 0.74346387 -0.3231979
0.18909071 0.72231919 -0.31400591
0.19861783 0.73056674 -0.31759128
0.20330854 0.72095841 -0.31341434
0.21197279 0.72550482 -0.31539077
0.22207507 0.73438561 -0.31925139
0.22822773 0.72993571 -0.31731695
0.23175652 0.71752948 -0.31192371
0.2450075 0.73494178 -0.31949317
0.24958584 0.72595578 -0.31558681
0.25648412 0.72393072 -0.31470647
0.26177639 0.717502 -0.31191179
0.27315173 0.72751951 -0.31626657
0.28406969 0.73567963 -0.31981394
0.28934911 0.72906923 -0.31694028
0.29207301 0.71641761 -0.31144038
0.30604631 0.73117644 -0.31785631
0.31335863 0.72955263 -0.31715041
0.32703167 0.74232262 -0.32270178
0.32604638 0.72188419 -0.31381679
0.33602887 0.72600085 -0.31560639
0.34970304 0.73758137 -0.32064068
0.35833511 0.73810583 -0.32086867
0.36202735 0.72853386 -0.31670755
0.36936852 0.72643995 -0.31579727
0.3779889 0.72676724 -0.31593955
0.39321908 0.73937577 -0.32142073
0.39979342 0.73537987 -0.31968364
0.40586767 0.7305181 -0.31757012
0.4188062 0.73781723 -0.3207432
0.4225246 0.72876912 -0.31680983
0.42944306 0.72535992 -0.31532776
0.44699466 0.73954183 -0.32149291
0.45499957 0.73753273 -0.32061952
0.46450022 0.73783439 -0.32075065
0.46389025 0.72223598 -0.31396973
0.48619616 0.74207896 -0.32259583
0.48958138 0.73268598 -0.31851256
0.50342351 0.73885053 -0.32119241
0.50506186 0.72705883 -0.31606632
0.52557689 0.7422176 -0.32265612
0.53427523 0.74027735 -0.32181266
0.55304205 0.75193971 -0.32688251
0.55111355 0.73539227 -0.31968901
0.56497306 0.73996854 -0.3216784
0.58128399 0.74736482 -0.32489371
0.5860222 0.73971647 -0.32156885
0.59244382 0.7342611 -0.3191973
0.61204618 0.74487269 -0.32381034
0.62154579 0.74285644 -0.32293382
0.63597864 0.746526 -0.32452905
0.64741552 0.74643183 -0.32448813
0.66959727 0.75832731 -0.32965931
0.67424327 0.75010896 -0.32608664
0.68006963 0.74327934 -0.32311767
0.68971425 0.7405979 -0.32195202
0.71248049 0.75166112 -0.32676139
0.72490674 0.75142545 -0.32665893
0.74541187 0.75922596 -0.33004996
0.74855441 0.74917465 -0.32568046
0.77134061 0.75858188 -0.32977
0.78265959 0.75637132 -0.32880902
0.79052168 0.75073862 -0.32636037
0.79903698 0.7456916 -0.32416636
0.83155805 0.76261383 -0.33152276
0.84092277 0.75785822 -0.32945541
0.86680496 0.76766312 -0.33371776
0.8719005 0.75880295 -0.32986608
0.88786387 0.75930166 -0.33008289
0.91053802 0.76517826 -0.33263758
0.9222433 0.76154405 -0.3310577
0.92720771 0.75231117 -0.32704401
0.94716102 0.75509036 -0.32825217
0.96115375 0.75284189 -0.32727471
0.99202806 0.76339537 -0.33186251
1.000026 0.75601047 -0.32865214
1.0172846 0.75548124 -0.3284221
1.045565 0.76272547 -0.33157128
1.0551469 0.75602257 -0.32865742
1.0749943 0.75648206 -0.32885715
1.0997217 0.75999218 -0.33038309
1.1278118 0.76534534 -0.33271021
1.1536589 0.76868844 -0.33416352
1.172327 0.76688224 -0.33337831
1.192686 0.76588714 -0.33294573
1.2197074 0.76877964 -0.33420315
1.2410699 0.76770711 -0.3337369
1.2616699 0.76584435 -0.33292714
1.2965853 0.77220094 -0.33569047
1.3418365 0.78396881 -0.34080619
1.3645099 0.78194797 -0.33992767
1.3855408 0.77866495 -0.33850047
1.410898 0.77746594 -0.33797923
1.4259967 0.77033401 -0.33487886
1.4705116 0.77860987 -0.33847654
1.4917901 0.7740373 -0.33648875
1.5375818 0.78163213 -0.33979034
1.5563854 0.77498585 -0.3369011
1.6016672 0.7810142 -0.33952174
1.6471794 0.78637534 -0.34185234
1.6724194 0.78149009 -0.33972862
1.6976906 0.77626002 -0.33745503
1.7364702 0.77671486 -0.33765274
1.8006577 0.78766185 -0.34241161
1.8452426 0.78911197 -0.34304199
1.8854398 0.78800571 -0.34256107
1.9275807 0.78706104 -0.34215042
1.9753473 0.78769511 -0.34242606
2.0122235 0.78332323 -0.34052551
2.0704138 0.78649205 -0.34190309
2.1260324 0.78775716 -0.34245306
2.1929941 0.79222405 -0.34439486
2.2620652 0.79633468 -0.34618184
2.3126433 0.79297501 -0.34472135
2.3915174 0.79827523 -0.34702545
2.4442689 0.79379982 -0.3450799
2.5245342 0.79719859 -0.34655741
2.5936646 0.79587924 -0.34598386
2.6857829 0.80031425 -0.34791183
2.7886677 0.80636704 -0.35054311
2.886127 0.80922312 -0.35178468
2.9675465 0.80615073 -0.35044909
0.0039007613 0.40992424 -0.17820187
0.0085516796 0.44930634 -0.19532202
0.0171459 0.60048896 -0.261044
0.026488718 0.69564831 -0.30241159
0.034895509 0.73297477 -0.31863809
0.04359585 0.76289016 -0.33164287
0.051036578 0.76525837 -0.33267239
0.058804706 0.7712248 -0.33526608
0.064807214 0.75518227 -0.3282921
0.072862208 0.76377094 -0.33202577
0.08012706 0.76315874 -0.33175963
0.086654104 0.75610393 -0.32869276
0.093619071 0.75355923 -0.32758656
0.10115156 0.75551206 -0.32843545
0.10768412 0.75012755 -0.32609475
0.11662707 0.76104337 -0.33084005
0.12327305 0.75645292 -0.32884449
0.13124852 0.75996655 -0.33037195
0.13913514 0.76250535 -0.33147559
0.14690636 0.76407224 -0.33215675
0.15380678 0.76106399 -0.33084899
0.16428654 0.77510822 -0.3369543
0.17145641 0.77286524 -0.33597925
0.17963569 0.77505183 -0.3369298
0.1831079 0.75746834 -0.32928592
0.19503254 0.77473938 -0.33679396
0.20099643 0.76779854 -0.33377665
0.20950432 0.77060997 -0.33499885
0.21232222 0.75292212 -0.32730958
0.22569019 0.77245444 -0.33580065
0.23116119 0.76443267 -0.33231345
0.24145831 0.77225071 -0.33571211
0.24936548 0.77204764 -0.3356238
0.25436339 0.76300639 -0.33169341
0.26853031 0.78105855 -0.33954102
0.27286205 0.77015764 -0.33480218
0.2763724 0.75750822 -0.32930323
0.29073241 0.77434433 -0.33662224
0.3027629 0.78409094 -0.34085926
0.30816022 0.77646738 -0.33754516
0.31133443 0.76366341 -0.33197904
0.31930593 0.76285505 -0.33162761
0.3320502 0.77306974 -0.33606815
0.34164131 0.7754848 -0.33711803
0.3421191 0.75747001 -0.32928663
0.35361177 0.76398921 -0.33212066
0.37163424 0.78383791 -0.34074926
0.38070562 0.78418505 -0.34090018
0.38234732 0.76942515 -0.33448377
0.39261252 0.77215415 -0.33567011
0.40209752 0.77312142 -0.33609059
0.4160144 0.78223807 -0.3400538
0.41139457 0.75671905 -0.32896018
0.42856723 0.77137476 -0.33533129
0.44789636 0.78906584 -0.34302193
0.44787607 0.77249533 -0.33581841
0.46093559 0.77855301 -0.3384518
0.46202376 0.7644071 -0.33230233
0.47666621 0.77265334 -0.3358871
0.4935002 0.78389943 -0.340776
0.50601596 0.78782195 -0.3424812
0.50113225 0.76487589 -0.33250612
0.5266788 0.78820437 -0.34264746
0.53309906 0.78240389 -0.34012586
0.53407609 0.76882607 -0.33422333
0.55171961 0.77913618 -0.33870533
0.56407982 0.78157377 -0.33976501
0.57596898 0.78311211 -0.34043375
0.57773465 0.77091479 -0.33513135
0.59078401 0.77377421 -0.33637437
0.62077177 0.7981348 -0.34696439
0.62893057 0.79387826 -0.34511399
0.64062446 0.79397517 -0.3451561
0.63792425 0.77636677 -0.33750141
0.65076631 0.77778012 -0.33811581
0.675381 0.79277736 -0.34463543
0.67480624 0.77801168 -0.33821648
0.69854599 0.79111212 -0.3439115
0.70159471 0.78053796 -0.33931473
0.72892153 0.79667175 -0.34632838
0.73972178 0.79429477 -0.34529507
0.74528348 0.78626806 -0.3418057
0.76400131 0.79195023 -0.34427583
0.78555977 0.80011791 -0.34782648
0.79517013 0.79582906 -0.34596205
0.81703448 0.80351996 -0.34930542
0.82602596 0.79828113 -0.34702799
0.84539974 0.80285484 -0.34901631
0.85861433 0.80129153 -0.34833667
0.87610579 0.80346811 -0.34928289
0.88728404 0.79964 -0.34761876
0.90277195 0.79951632 -0.34756497
0.90454233 0.7872107 -0.34221548
0.93540192 0.7999562 -0.34775618
0.94666463 0.79553759 -0.34583533
0.96757513 0.79897684 -0.34733045
0.99461371 0.80700254 -0.35081938
0.99999076 0.797207 -0.34656104
1.0227466 0.80108571 -0.3482472
1.0364587 0.79758608 -0.34672585
1.0640708 0.80442774 -0.34970006
1.072462 0.79645848 -0.34623566
1.1058259 0.80668491 -0.3506813
1.1276439 0.80796736 -0.35123882
1.1559165 0.81342763 -0.35361245
1.1628139 0.80359381 -0.34933752
1.1881012 0.80625832 -0.35049585
1.2119081 0.8075003 -0.35103574
1.2252445 0.80149847 -0.34842664
1.2590373 0.80849493 -0.35146815
1.2979995 0.81812698 -0.35565537
1.3264608 0.82052863 -0.35669944
1.36257 0.82709163 -0.35955247
1.3510989 0.80466729 -0.34980419
1.3603911 0.7948094 -0.3455188
1.3551815 0.77660221 -0.33760375
1.3676354 0.76860213 -0.334126
1.4134694 0.77888286 -0.33859521
1.4535689 0.78522867 -0.34135386
1.4930282 0.79053205 -0.34365934
1.5126786 0.78487569 -0.34120041
1.5480772 0.78696746 -0.34210974
1.592417 0.79292744 -0.34470063
1.6157944 0.78790295 -0.34251642
1.6702416 0.79738545 -0.34663865
1.7071687 0.79772776 -0.34678745
1.7460171 0.79835701 -0.34706101
1.8002846 0.80525869 -0.3500613
1.841274 0.80542862 -0.35013515
1.8914642 0.80887848 -0.35163489
1.9464071 0.81348652 -0.35363808
1.9778258 0.80757689 -0.35106906
2.0331221 0.8107335 -0.35244128
2.11532 0.82345688 -0.35797238
2.1655736 0.8226406 -0.35761753
2.2428575 0.83104432 -0.36127079
2.3018527 0.83154953 -0.3614904
2.3526223 0.82821435 -0.36004055
2.4344106 0.83472741 -0.36287192
2.5042803 0.83591491 -0.36338815
2.5950916 0.84278095 -0.36637294
2.6597431 0.83989501 -0.36511835
2.7482414 0.84331197 -0.36660376
2.8512666 0.84962541 -0.36934835
2.919327 0.84414834 -0.36696735
0.0043894476 0.47302678 -0.17098367
0.014398235 0.77575046 -0.28040835
0.022616884 0.81226766 -0.29360813
0.03043236 0.81957006 -0.29624769
0.038254201 0.82398689 -0.29784423
0.046264984 0.83021569 -0.30009574
0.054272149 0.83449787 -0.30164361
0.060757887 0.81713384 -0.29536709
0.069279388 0.82785475 -0.29924235
0.07800439 0.83849698 -0.30308917
0.085781954 0.83782488 -0.30284622
0.093343928 0.83521843 -0.30190408
0.10131688 0.83628935 -0.30229115
0.10846373 0.83075881 -0.30029207
0.11577675 0.8270399 -0.29894781
0.12497745 0.83630246 -0.30229589
0.13081133 0.82315338 -0.29754296
0.14016528 0.83226609 -0.30083689
0.14936808 0.839432 -0.30342713
0.15697795 0.83724803 -0.3026377
0.16382973 0.83130443 -0.30048928
0.17115566 0.82808191 -0.29932445
0.17723808 0.81927317 -0.29614037
0.18524928 0.81962717 -0.29626834
0.19825867 0.84102952 -0.30400461
0.20538028 0.8366214 -0.3024112
0.21640381 0.8477065 -0.30641809
0.22039081 0.83129805 -0.30048698
0.23210223 0.84402555 -0.30508754
0.23733704 0.83300453 -0.30110383
0.24612653 0.83465004 -0.30169863
0.2582722 0.84706253 -0.30618533
0.259022 0.82236773 -0.29725897
0.27102858 0.83370095 -0.30135557
0.27995712 0.83503264 -0.30183691
0.28738585 0.83180887 -0.30067161
0.29509339 0.82941866 -0.29980764
0.3021273 0.82518679 -0.29827797
0.31477994 0.8359735 -0.30217701
0.32047293 0.82805586 -0.29931504
0.32884482 0.82715607 -0.2989898
0.34654191 0.84900934 -0.30688903
0.35074177 0.83738291 -0.30268645
0.36524156 0.85016793 -0.30730781
0.36852425 0.83671176 -0.30244386
0.37588346 0.83278978 -0.3010262
0.38838172 0.84002256 -0.3036406
0.40510985 0.85570431 -0.30930904
0.40930238 0.84464508 -0.3053115
0.42135057 0.84977722 -0.30716661
0.42577565 0.83949625 -0.30345038
0.44275504 0.85372061 -0.30859202
0.44173601 0.83322179 -0.30118233
0.4526287 0.83543032 -0.30198067
0.46959853 0.84836763 -0.30665708
0.47463599 0.83949924 -0.30345145
0.48336205 0.83722496 -0.30262935
0.49741489 0.84391916 -0.30504909
0.50227225 0.83489358 -0.30178666
0.52600026 0.85680223 -0.30970588
0.53342307 0.85164243 -0.30784082
0.54182035 0.84803843 -0.30653808
0.55332625 0.84917253 -0.30694804
0.55906504 0.84140885 -0.30414173
0.57168704 0.8439272 -0.30505201
0.59256756 0.85813278 -0.31018686
0.6005078 0.85323697 -0.3084172
0.61734927 0.86075085 -0.31113321
0.61794949 0.84557587 -0.30564797
0.62806654 0.84355384 -0.30491704
0.6370315 0.83989847 -0.30359575
0.65420532 0.84681189 -0.30609474
0.66679674 0.8474586 -0.30632851
0.68306041 0.85246903 -0.30813959
0.69520587 0.85205352 -0.30798939
0.71416765 0.85965508 -0.3107371
0.7183823 0.84934533 -0.30701047
0.73315865 0.85145682 -0.30777371
0.75184488 0.85774392 -0.31004629
0.7597754 0.85154098 -0.30780414
0.77154469 0.8495639 -0.30708948
0.80695307 0.87300968 -0.31556436
0.80442119 0.85508424 -0.30908489
0.82035452 0.8568365 -0.30971831
0.83773232 0.85977858 -0.31078178
0.84704244 0.85424632 -0.30878204
0.87489915 0.86704534 -0.31340846
0.88638461 0.86321467 -0.31202379
0.89506161 0.85657811 -0.30962488
0.92136061 0.86648971 -0.31320763
0.93649834 0.86548698 -0.31284517
0.96319652 0.87475383 -0.3161948
0.96910065 0.86487359 -0.31262344
0.98586535 0.86458403 -0.31251878
1.0019604 0.86344916 -0.31210855
1.0084481 0.85393476 -0.30866942
1.0515344 0.87491459 -0.31625292
1.0543299 0.86193246 -0.31156033
1.0714127 0.86057621 -0.31107008
1.0946782 0.8638407 -0.31225008
1.1304307 0.87635899 -0.31677505
1.141628 0.8694157 -0.31426525
1.1723477 0.87699127 -0.31700358
1.1765007 0.86444157 -0.31246728
1.2162113 0.8776536 -0.31724298
1.2418789 0.8800903 -0.31812379
1.2700945 0.88384992 -0.31948277
1.2725844 0.86952329 -0.31430414
1.3278232 0.89072126 -0.32196653
1.3450483 0.88572359 -0.32016003
1.3762914 0.88956618 -0.321549
1.3579643 0.86140877 -0.31137103
1.36257 0.84815508 -0.30658025
1.3754205 0.84001362 -0.30363739
1.3781022 0.82566202 -0.29844975
1.3797748 0.81083226 -0.29308927
1.3889513 0.80046058 -0.28934026
1.416898 0.80065608 -0.28941092
1.4768329 0.81811351 -0.2957212
1.5034205 0.81630713 -0.29506826
1.5379189 0.81829381 -0.29578638
1.5638204 0.81521595 -0.29467383
1.6091144 0.82164687 -0.29699838
1.655527 0.82783651 -0.29923576
1.6817728 0.82333761 -0.29760957
1.7107327 0.8197512 -0.29631317
1.7567563 0.82372427 -0.29774931
1.815564 0.83277464 -0.30102071
1.845787 0.82796484 -0.29928213
1.9023401 0.83424759 -0.30155313
1.9445872 0.83342361 -0.30125532
1.9979239 0.8365587 -0.30238855
2.0532975 0.83963048 -0.30349889
2.128207 0.84957224 -0.30709249
2.1711166 0.84574997 -0.30571088
2.2456391 0.85326535 -0.30842745
2.3186004 0.85893065 -0.31047526
2.3927662 0.86379856 -0.31223485
2.4700043 0.86850077 -0.31393453
2.5606618 0.87650222 -0.31682682
2.7270613 0.90819395 -0.32828233
2.8327732 0.91731548 -0.33157948
2.9132497 0.91671157 -0.33136117
0.0063616442 0.68555963 -0.24780732
0.01544538 0.8321687 -0.30080169
0.023742493 0.85269302 -0.30822057
0.031584043 0.85058594 -0.30745891
0.039780881 0.85687119 -0.30973083
0.047939733 0.86026877 -0.31095895
0.05555417 0.85421038 -0.30876905
0.063129604 0.84903115 -0.3068969
0.071946993 0.85973132 -0.31076467
0.080008976 0.86004496 -0.31087807
0.088657327 0.86590844 -0.31299752
0.097106956 0.86888903 -0.3140749
0.10459978 0.86338705 -0.31208611
0.11406972 0.87369692 -0.3158128
0.11864832 0.84755266 -0.30636251
0.12984852 0.8688978 -0.31407806
0.13938428 0.87710023 -0.31704298
0.14485832 0.86013216 -0.31090957
0.15349427 0.86262077 -0.31180912
0.16322929 0.87058979 -0.31468964
0.17294151 0.87753934 -0.3172017
0.17936043 0.86777812 -0.31367332
0.18920015 0.87456721 -0.31612736
0.19710027 0.87206125 -0.31522155
0.20258746 0.85939258 -0.31064224
0.21482822 0.87510782 -0.31632277
0.22364062 0.87605482 -0.31666511
0.23369652 0.88148618 -0.31862834
0.24061516 0.8749823 -0.31627741
0.24794863 0.87024903 -0.31456646
0.25681609 0.87089974 -0.31480169
0.26847076 0.88051111 -0.3182759
0.27379081 0.86925709 -0.31420794
0.28710902 0.88316542 -0.31923532
0.2998037 0.89422935 -0.32323459
0.30561784 0.88457954 -0.31974649
0.31476626 0.88471317 -0.3197948
0.32394037 0.8847639 -0.31981313
0.33213788 0.88207167 -0.31884
0.34031013 0.87931234 -0.31784257
0.35370955 0.88969928 -0.3215971
0.36374354 0.8911525 -0.3221224
0.36870036 0.88025832 -0.31818449
0.38359728 0.89289433 -0.32275203
0.39416406 0.8949253 -0.32348615
0.4059698 0.89944762 -0.32512081
0.41549671 0.898669 -0.32483938
0.42300624 0.89350653 -0.32297331
0.43211055 0.89171255 -0.32232484
0.43698746 0.88131362 -0.31856599
0.45763347 0.90230989 -0.32615542
0.46555036 0.89767456 -0.32447994
0.47653946 0.89886945 -0.32491183
0.49030998 0.90497971 -0.32712048
0.50238276 0.90759492 -0.32806581
0.50843793 0.89928544 -0.32506219
0.52105761 0.9025169 -0.32623026
0.52698827 0.89409363 -0.32318553
0.53920406 0.89628291 -0.32397687
0.54650027 0.89019471 -0.32177621
0.56945831 0.90917492 -0.32863691
0.58302337 0.91252798 -0.32984895
0.58781117 0.90209544 -0.32607791
0.60728776 0.91398549 -0.33037579
0.61789483 0.91213936 -0.32970846
0.63287085 0.9164983 -0.33128408
0.63472784 0.90185887 -0.32599241
0.65984792 0.92000538 -0.33255178
0.66552764 0.91067988 -0.3291809
0.684277 0.91904992 -0.3322064
0.69800532 0.92028987 -0.3326546
0.70299149 0.9099614 -0.3289212
0.71557218 0.90944922 -0.32873607
0.73902929 0.92231894 -0.33338806
0.74390686 0.91174203 -0.32956484
0.75357002 0.90708435 -0.32788125
0.7781437 0.92000139 -0.33255035
0.79420274 0.92235065 -0.3333995
0.80145901 0.91434622 -0.33050618
0.81505513 0.91349739 -0.33019936
0.82739729 0.91106433 -0.32931989
0.84762877 0.91701508 -0.33147088
0.8667075 0.92129338 -0.33301735
0.87656152 0.91554314 -0.33093882
0.88907719 0.91247469 -0.32982966
0.90910429 0.91683596 -0.33140615
0.92996752 0.9216193 -0.33313516
0.93987334 0.91530526 -0.33085284
0.96094716 0.91963089 -0.33241642
0.97368658 0.91569948 -0.33099532
0.99070549 0.91558373 -0.33095348
1.0106729 0.91787088 -0.33178023
1.0220531 0.91213095 -0.32970542
1.0604635 0.93000507 -0.33616635
1.0734764 0.92507869 -0.3343856
1.0835057 0.91749215 -0.33164334
1.1114509 0.9247672 -0.33427301
1.1365933 0.9291842 -0.33586964
1.1482136 0.92226404 -0.33336821
1.1636221 0.91824633 -0.33191594
1.1975621 0.92840219 -0.33558697
1.2255598 0.93333465 -0.33736986
1.2388693 0.92675376 -0.3349911
1.2600299 0.92581522 -0.33465183
1.2884065 0.92975175 -0.33607477
1.3113602 0.92933011 -0.33592236
1.352088 0.94090855 -0.34010759
1.3607674 0.92977637 -0.33608368
1.3555031 0.90928924 -0.32867825
1.3696229 0.90190619 -0.32600951
1.3713467 0.88637012 -0.32039374
1.374545 0.87192661 -0.31517288
1.3684074 0.85178858 -0.30789363
1.348583 0.82362312 -0.29771274
1.3696684 0.82060897 -0.29662323
1.3670541 0.80335689 -0.29038718
1.380425 0.79554683 -0.28756407
1.4134694 0.79871863 -0.28871059
1.4828643 0.82145464 -0.29692891
1.5025545 0.81583691 -0.2948983
1.5370486 0.81783074 -0.29561898
1.5926828 0.83026189 -0.30011246
1.6548129 0.84498149 -0.30543309
1.7182163 0.85918391 -0.31056681
1.7562817 0.85981464 -0.3107948
1.7624111 0.84451455 -0.30526432
1.8596739 0.87198114 -0.31519261
1.8937593 0.86864167 -0.3139855
1.93063 0.86602283 -0.31303886
1.9775635 0.8672359 -0.31347734
2.0601523 0.88295317 -0.31915861
2.1185119 0.88705057 -0.3206397
2.1679299 0.88650572 -0.32044277
2.2313037 0.890728 -0.32196894
2.3217092 0.90441269 -0.32691553
2.39677 0.91068995 -0.32918456
2.4404848 0.90408307 -0.32679638
2.5075967 0.90525281 -0.32721922
2.5533681 0.89781302 -0.32452998
2.7514195 0.94179767 -0.34042898
2.922188 0.97317702 -0.35177159
0.0069114161 0.75030714 -0.25348645
0.015794428 0.85726058 -0.28961998
0.023716316 0.85804445 -0.28988484
0.031479347 0.85402846 -0.28852805
0.039301068 0.85278922 -0.28810939
0.04773039 0.86283886 -0.29150459
0.054943681 0.85106385 -0.28752646
0.062990092 0.85341251 -0.28831995
0.071476236 0.86041498 -0.29068568
0.078265861 0.84752208 -0.28632993
0.088753171 0.87324762 -0.29502112
0.095957138 0.86494297 -0.29221544
0.1051658 0.87447107 -0.29543447
0.1098043 0.84723908 -0.28623429
0.12008411 0.86414546 -0.29194599
0.1288743 0.86874878 -0.29350123
0.13642809 0.86483926 -0.29218042
0.14814344 0.88613594 -0.29937536
0.15332922 0.86805826 -0.29326791
0.16444482 0.88355154 -0.29850224
0.1703902 0.87098002 -0.29425502
0.17687993 0.86209822 -0.29125437
0.18720648 0.87174356 -0.29451299
0.19689235 0.87757623 -0.29648352
0.20280388 0.86666554 -0.29279742
0.21460328 0.88064879 -0.29752156
0.22107273 0.87239259 -0.29473224
0.23369652 0.88799739 -0.30000424
0.24036478 0.88052821 -0.29748082
0.24561925 0.86844122 -0.29339731
0.25601435 0.87459397 -0.29547596
0.27150279 0.8970328 -0.30305678
0.27407479 0.87658638 -0.2961491
0.28740141 0.89059502 -0.30088183
0.29348889 0.88186026 -0.29793084
0.30778095 0.89742076 -0.30318785
0.3115932 0.8822639 -0.29806721
0.31645229 0.87069643 -0.2941592
0.33147028 0.88680112 -0.29960006
0.3416782 0.88936847 -0.30046746
0.34810624 0.88207287 -0.29800266
0.36123499 0.89154381 -0.30120239
0.36906683 0.88764191 -0.29988414
0.38060042 0.89246261 -0.30151278
0.38995457 0.89190781 -0.30132535
0.40010881 0.89301032 -0.30169782
0.40552792 0.88358659 -0.29851407
0.4270736 0.90876138 -0.3070192
0.43086645 0.89571297 -0.3026109
0.44163623 0.89726841 -0.30313641
0.45505044 0.90384436 -0.30535805
0.46292013 0.89919627 -0.30378771
0.48010904 0.912292 -0.30821201
0.48123011 0.89478177 -0.30229628
0.492686 0.89665163 -0.302928
0.50233483 0.89505374 -0.30238816
0.51580882 0.90002495 -0.30406767
0.5332908 0.91146988 -0.30793428
0.5441283 0.91114908 -0.30782589
0.55700022 0.91399997 -0.30878904
0.57910156 0.93140042 -0.31466767
0.57838804 0.91195989 -0.30809981
0.5909462 0.91360569 -0.30865583
0.60410821 0.91591609 -0.30943638
0.61359644 0.91248482 -0.30827716
0.6350494 0.92644644 -0.312994
0.64355886 0.92116088 -0.31120831
0.65984792 0.92680115 -0.31311384
0.67062533 0.92443365 -0.312314
0.67911488 0.91885412 -0.31042898
0.68987542 0.91628963 -0.30956259
0.71944952 0.93814373 -0.31694585
0.72092563 0.92302114 -0.31183678
0.75648189 0.95107383 -0.32131419
0.75303829 0.92975104 -0.31411043
0.77388686 0.93842101 -0.31703952
0.79930925 0.95200598 -0.32162914
0.80427188 0.9409439 -0.3178919
0.81481665 0.93645191 -0.3163743
0.8381955 0.94637191 -0.31972569
0.85077739 0.94372845 -0.31883264
0.86599845 0.94380891 -0.31885982
0.8859235 0.94867581 -0.32050404
0.91001815 0.95750844 -0.32348809
0.91474962 0.94575745 -0.31951812
0.93706626 0.95201635 -0.32163265
0.95612508 0.95454121 -0.32248566
0.98016351 0.96159309 -0.32486805
0.99038535 0.95480436 -0.32257456
1.0118704 0.95863837 -0.32386985
1.0363535 0.96484512 -0.32596675
1.0682203 0.97730005 -0.33017457
1.0866114 0.97690916 -0.33004251
1.1101955 0.98081088 -0.33136067
1.1162386 0.96903479 -0.32738221
1.1459301 0.97751951 -0.33024871
1.1728653 0.98307461 -0.33212546
1.1924418 0.98204219 -0.33177668
1.2303375 0.99552703 -0.33633244
1.2540154 0.9968878 -0.33679217
1.2762678 0.99672675 -0.33673775
1.2962801 0.99448425 -0.33598015
1.3210433 0.99552476 -0.33633167
1.3522272 1.0008968 -0.33814657
1.3510815 0.98218161 -0.33182377
1.3552852 0.96755326 -0.32688168
1.3657535 0.95743877 -0.32346457
1.3453959 0.9260639 -0.31286475
1.3782983 0.93141013 -0.31467095
1.3638889 0.90476435 -0.30566886
1.3655778 0.88916111 -0.3003974
1.3687418 0.87465882 -0.29549786
1.378414 0.86435521 -0.29201689
1.4282566 0.87872565 -0.29687184
1.5501543 0.9356038 -0.31608775
1.5671936 0.92777282 -0.31344211
1.3829829 0.80290824 -0.2712574
1.5077578 0.85829222 -0.28996852
1.7172275 0.95831043 -0.32375905
1.7727544 0.96965641 -0.32759222
1.8059886 0.96802604 -0.32704139
1.8629405 0.97832012 -0.3305192
1.9369133 0.9963333 -0.33660483
2.0007596 1.007858 -0.34049839
2.0481083 1.0100893 -0.34125221
2.0600073 0.99440861 -0.33595458
2.0431354 0.96508074 -0.32604635
2.0887973 0.96518022 -0.32607996
2.1607893 0.97642499 -0.32987896
2.2385802 0.98895299 -0.33411145
2.3213112 1.0022311 -0.33859739
2.2500625 0.94909185 -0.32064462
2.2614701 0.93158686 -0.31473064
2.4292121 0.97689527 -0.33003783
2.4445848 0.95931262 -0.32409763
2.3939884 0.91635215 -0.30958372
2.3679125 0.88367802 -0.29854497
2.5066631 0.91159999 -0.30797821
2.5608613 0.90709913 -0.30645764
2.6292596 0.90663075 -0.30629939
0.0071383063 0.77493846 -0.26180801
0.015567547 0.84494638 -0.28545973
0.023192776 0.83910304 -0.28348559
0.031549145 0.8559221 -0.28916779
0.038864873 0.84332424 -0.28491169
0.046579 0.84202474 -0.28447267
0.054821584 0.84917259 -0.28688753
0.063548148 0.86097318 -0.29087427
0.070377812 0.84719235 -0.28621852
0.077045679 0.83430898 -0.28186595
0.086932108 0.85532999 -0.28896776
0.09407562 0.84798324 -0.28648573
0.1018829 0.84717321 -0.28621206
0.11151046 0.86040372 -0.29068187
0.11734306 0.84442037 -0.28528202
0.12762174 0.86030519 -0.29064861
0.13554123 0.85921735 -0.29028109
0.14454545 0.86461419 -0.29210436
0.15200885 0.86058301 -0.29074246
0.15871443 0.85276246 -0.28810033
0.16783892 0.85793859 -0.28984907
0.17726155 0.86395824 -0.29188275
0.18521279 0.86245984 -0.29137653
0.19730817 0.87942952 -0.29710963
0.19934087 0.8518666 -0.28779766
0.2107791 0.8649559 -0.29221982
0.2199055 0.86778647 -0.29317608
0.22619693 0.85950059 -0.29037678
0.23460603 0.85943222 -0.29035366
0.24199578 0.85562968 -0.289069
0.2528075 0.8636387 -0.29177481
0.26433623 0.87335473 -0.29505733
0.27237073 0.87113607 -0.29430774
0.28067684 0.86975712 -0.29384187
0.28957972 0.87011415 -0.29396251
0.30407277 0.88660848 -0.29953501
0.30746827 0.87058419 -0.2941213
0.31938243 0.87875843 -0.29688293
0.32746458 0.87608451 -0.29597956
0.3416782 0.88936847 -0.30046746
0.34180248 0.86609966 -0.29260623
0.35944316 0.8871215 -0.29970834
0.36430234 0.87618279 -0.29601276
0.37760356 0.88543528 -0.29913864
0.3815355 0.87265164 -0.29481977
0.39659223 0.88516152 -0.29904616
0.41031295 0.89401251 -0.3020364
0.41812542 0.88972068 -0.30058643
0.43459868 0.90347177 -0.30523217
0.43994579 0.89383394 -0.30197608
0.4442876 0.88246673 -0.29813573
0.46555036 0.9043054 -0.3055138
0.46940032 0.89194345 -0.30133739
0.48350012 0.89900255 -0.30372226
0.50007397 0.91009712 -0.3074705
0.50843793 0.90592813 -0.30606201
0.52248907 0.91168123 -0.30800569
0.53183639 0.90898407 -0.30709445
0.53526467 0.89630681 -0.30281153
0.54900026 0.90087259 -0.30435404
0.56032258 0.90119714 -0.30446368
0.57838804 0.91195989 -0.30809981
0.58885616 0.91037446 -0.30756417
0.60410821 0.91591609 -0.30943638
0.62380517 0.92766631 -0.31340611
0.62306738 0.90896636 -0.30708846
0.63252014 0.90536058 -0.30587026
0.65537441 0.9205178 -0.31099105
0.65929723 0.9088183 -0.30703843
0.67854124 0.91807801 -0.31016678
0.69161755 0.9186036 -0.31034434
0.71298391 0.92971271 -0.31409749
0.73044276 0.93520635 -0.31595346
0.73120564 0.91929567 -0.31057817
0.74877697 0.92448968 -0.31233293
0.76711464 0.93020892 -0.31426513
0.7781437 0.92679715 -0.31311247
0.79860806 0.93431759 -0.3156532
0.81290841 0.93425876 -0.31563336
0.83562434 0.94346887 -0.31874493
0.85986966 0.95381415 -0.32224
0.85353327 0.9302237 -0.31427014
0.88393563 0.94654709 -0.31978488
0.90332681 0.950468 -0.32110953
0.91069615 0.94156653 -0.31810224
0.93502033 0.94993776 -0.32093039
0.95061821 0.94904351 -0.32062829
0.98016351 0.96159309 -0.32486805
0.99809539 0.96223748 -0.32508579
1.0175272 0.96399778 -0.32568046
1.0213753 0.95090044 -0.32125562
1.0595882 0.96940261 -0.32750648
1.0851607 0.97560495 -0.32960188
1.0941058 0.96659625 -0.32655835
1.1177131 0.97031498 -0.3278147
1.1340396 0.96737665 -0.32682201
1.1736143 0.98370242 -0.33233756
1.1773475 0.96961123 -0.32757694
1.2075254 0.97706854 -0.33009636
1.2333323 0.9804455 -0.33123723
1.271638 0.99311107 -0.33551621
1.2854002 0.98613733 -0.33316019
1.3453041 1.0138075 -0.34250838
1.3664113 1.0113957 -0.34169358
1.3653618 0.99256283 -0.33533102
1.3704592 0.97838616 -0.33054152
1.3593227 0.95293051 -0.32194147
1.3712846 0.94388354 -0.318885
1.375856 0.9297598 -0.31411338
1.3835485 0.91780609 -0.3100749
1.5073276 0.98145789 -0.33157927
1.5950692 1.0192873 -0.34435973
1.6410882 1.0290691 -0.34766442
1.6622459 1.022686 -0.34550795
1.6952176 1.0231576 -0.34566724
1.6748958 0.99153209 -0.33498275
1.3889513 0.8063733 -0.27242807
1.3920401 0.79241985 -0.26771396
1.7801265 0.9934116 -0.33561775
1.8628212 1.0189209 -0.3442359
1.9313198 1.0352046 -0.34973729
1.9643964 1.0315995 -0.34851927
2.0379772 1.0483198 -0.35416815
2.1173086 1.0665683 -0.36033326
2.1563237 1.063459 -0.35928285
2.1713831 1.048172 -0.3541182
2.1818502 1.0306032 -0.34818268
2.2182238 1.024985 -0.3462846
2.2772226 1.0290394 -0.34765437
2.3228669 1.0261889 -0.34669134
2.3822787 1.028554 -0.34749037
2.4245496 1.0226918 -0.34550989
2.4806473 1.0218743 -0.34523371
2.5129781 1.0105814 -0.34141845
2.5111043 0.98541647 -0.33291665
2.6146581 1.0008184 -0.3381201
2.7596183 1.0298582 -0.347931
2.8436856 1.0341651 -0.3493861
2.8774564 1.0192423 -0.3443445
2.524014 0.87033957 -0.29403865
0.0076095387 0.8420617 -0.22640271
0.014921808 0.82555103 -0.22196354
0.023009539 0.84856284 -0.22815067
0.030502161 0.84351104 -0.2267924
0.037905246 0.83839792 -0.22541766
0.045636952 0.84093964 -0.22610104
0.053722713 0.8482343 -0.22806232
0.061176427 0.84485918 -0.22715487
0.069671683 0.85490149 -0.22985493
0.076784208 0.84754759 -0.22787769
0.082906581 0.83148813 -0.22355983
0.091566943 0.8413223 -0.22620392
0.1016565 0.86162758 -0.23166333
0.10748878 0.845402 -0.22730082
0.11512412 0.84446394 -0.22704861
0.12386407 0.85111201 -0.22883604
0.13243724 0.85576642 -0.23008746
0.13969599 0.85175627 -0.22900927
0.14738752 0.8505466 -0.22868402
0.15402593 0.84356594 -0.22680716
0.16656326 0.86787319 -0.23334259
0.17325455 0.86074871 -0.23142704
0.17883302 0.84884644 -0.22822692
0.18940753 0.86053145 -0.23136862
0.19717647 0.85890245 -0.23093066
0.20425552 0.85438526 -0.22971612
0.21406937 0.86108255 -0.23151681
0.22305195 0.86393088 -0.23228262
0.2288473 0.85453868 -0.22975737
0.23733704 0.85537601 -0.22998251
0.2471955 0.86078805 -0.23143761
0.25551581 0.86052859 -0.23136787
0.26470229 0.8629722 -0.23202488
0.27161333 0.85793817 -0.23067138
0.28055856 0.85930061 -0.23103769
0.2886219 0.85782194 -0.23064013
0.30017024 0.8663466 -0.23293212
0.30473185 0.85465306 -0.22978812
0.31477994 0.85842472 -0.23080219
0.32799739 0.87025869 -0.23398396
0.33584896 0.86746144 -0.23323187
0.3443917 0.86640126 -0.23294683
0.35404029 0.86795849 -0.23336552
0.36074626 0.86225569 -0.23183222
0.37426451 0.87256569 -0.23460424
0.38604248 0.87826777 -0.23613735
0.39276797 0.87232423 -0.23453932
0.40714353 0.88309658 -0.23743564
0.41469339 0.87875307 -0.23626782
0.42430887 0.87872571 -0.23626047
0.43653846 0.88383287 -0.23763362
0.44494689 0.8809883 -0.2368688
0.44976759 0.87115544 -0.23422506
0.46080056 0.87335503 -0.23481646
0.47560126 0.88228732 -0.23721807
0.49810955 0.9046784 -0.24323829
0.49719968 0.88432145 -0.23776497
0.51680726 0.90036869 -0.24207954
0.51802981 0.88421208 -0.23773557
0.53450024 0.89403027 -0.24037537
0.53443813 0.87617862 -0.23557563
0.55418122 0.89068007 -0.23947461
0.5684787 0.8958568 -0.24086645
0.57496268 0.88857508 -0.23890863
0.5888806 0.89265496 -0.24000558
0.6154424 0.91519517 -0.2460659
0.61320227 0.89467335 -0.24054827
0.62182283 0.89027226 -0.23936495
0.64457065 0.90569055 -0.24351043
0.66076034 0.91129887 -0.24501832
0.66838944 0.90490961 -0.24330045
0.68300676 0.90783638 -0.24408737
0.69891709 0.91213769 -0.24524385
0.71134573 0.91161186 -0.24510247
0.72625273 0.91400993 -0.24574722
0.7437194 0.91926956 -0.24716137
0.75262058 0.91372287 -0.24567005
0.77532315 0.92460686 -0.2485964
0.78492093 0.91952813 -0.24723089
0.80412775 0.92545456 -0.24882431
0.81960386 0.92672026 -0.24916461
0.84894085 0.94310039 -0.25356871
0.84351581 0.92072159 -0.24755177
0.868532 0.93151939 -0.25045496
0.88434809 0.93199652 -0.25058323
0.89819235 0.93015862 -0.25008908
0.92170727 0.9379648 -0.25218791
0.93917865 0.93919224 -0.25251794
0.95954531 0.9429512 -0.25352859
0.98570746 0.95190036 -0.25593475
0.98642594 0.93611175 -0.25168967
1.006357 0.93849659 -0.2523309
1.0329337 0.94659865 -0.25450927
1.0633888 0.95761603 -0.25747147
1.0756882 0.95188022 -0.25592932
1.0998549 0.95634872 -0.25713074
1.125681 0.96176112 -0.25858596
1.1569704 0.97124487 -0.26113582
1.1786299 0.97211963 -0.26137102
1.1911998 0.96525371 -0.259525
1.2330568 0.98159182 -0.26391777
1.2473199 0.97541726 -0.26225767
1.2592171 0.96727329 -0.260068
1.2813063 0.96673197 -0.25992247
1.3066536 0.96824282 -0.26032868
1.3760498 1.0013636 -0.26923379
1.487136 1.0626808 -0.28571996
1.5630217 1.0966532 -0.29485402
1.6119496 1.1103573 -0.29853857
1.6481348 1.1144557 -0.29964051
1.6770978 1.1131045 -0.29927722
1.7119635 1.1151291 -0.29982159
1.7503272 1.1187818 -0.30080366
1.7955947 1.126079 -0.30276564
1.8107624 1.1140175 -0.2995227
1.8300886 1.1043446 -0.29692197
1.6259854 0.96223086 -0.25871226
1.3817542 0.80176651 -0.21556866
1.7628938 1.0028086 -0.26962227
2.0100455 1.1206983 -0.30131894
2.0601325 1.1255913 -0.30263451
2.1227026 1.1362782 -0.30550787
2.1864972 1.1464548 -0.30824402
2.2188478 1.1393193 -0.30632553
2.274296 1.1433188 -0.30740085
2.2916691 1.1276168 -0.30317909
2.3339891 1.1237737 -0.30214581
2.3853996 1.1235354 -0.30208173
2.4306624 1.1196045 -0.30102485
2.4778454 1.1158112 -0.30000496
2.5033033 1.1016954 -0.29620969
2.5159039 1.081736 -0.29084328
2.5503438 1.0708898 -0.28792706
2.7108865 1.111239 -0.29877564
2.8326144 1.1330681 -0.30464476
2.987386 1.1655884 -0.31338841
2.5296521 0.88914233 -0.23906115
2.898622 0.99125409 -0.26651564
0.0074699144 0.82661098 -0.22224854
0.014956712 0.8274821 -0.22248276
0.022800123 0.84083986 -0.2260742
0.02976927 0.82324356 -0.22134314
0.037730768 0.83453882 -0.22438006
0.045898631 0.84576154 -0.22739749
0.052806985 0.83377582 -0.22417492
0.061315939 0.84678596 -0.22767292
0.068102494 0.83564693 -0.22467799
0.07477963 0.82542092 -0.22192855
0.083289966 0.83533317 -0.22459362
0.091253363 0.83844113 -0.22542927
0.099166028 0.84051865 -0.22598784
0.10687943 0.84060943 -0.22601224
0.11486307 0.84254903 -0.22653374
0.12469912 0.85684991 -0.23037879
0.13273285 0.85767663 -0.23060106
0.13672373 0.83363384 -0.22413674
0.14705741 0.84864163 -0.22817184
0.15645701 0.85688043 -0.23038699
0.16127843 0.84033674 -0.22593893
0.17268212 0.85790485 -0.23066242
0.17803556 0.84506112 -0.22720917
0.18961544 0.861476 -0.23162259
0.1952285 0.85041714 -0.22864923
0.20448047 0.85532618 -0.2299691
0.21243526 0.85450947 -0.22974952
0.22281003 0.8629939 -0.23203069
0.22834654 0.85266882 -0.22925463
0.23785469 0.85724169 -0.23048411
0.24211796 0.84310699 -0.22668375
0.25634274 0.86331356 -0.23211664
0.26101011 0.8509351 -0.2287885
0.26927435 0.85055012 -0.22868498
0.28025782 0.85837954 -0.23079005
0.29078501 0.86425102 -0.23236869
0.29541066 0.85260963 -0.2292387
0.30766195 0.86287093 -0.23199764
0.31277707 0.85296273 -0.22933365
0.3262873 0.86572134 -0.23276402
0.33269709 0.85932046 -0.23104304
0.34224147 0.86099184 -0.23149242
0.34780976 0.8526839 -0.22925867
0.3622447 0.86583728 -0.23279519
0.37082034 0.86453593 -0.2324453
0.37783712 0.85960019 -0.23111823
0.39356548 0.87409544 -0.23501554
0.40551656 0.87956762 -0.23648684
0.41261992 0.87435931 -0.23508649
0.4217732 0.87347442 -0.23484856
0.42663667 0.86378533 -0.23224349
0.44889227 0.88880002 -0.23896913
0.45779917 0.88671178 -0.23840766
0.46534047 0.8819595 -0.23712993
0.47375429 0.87886101 -0.23629685
0.48731169 0.88506711 -0.23796545
0.50578851 0.89959753 -0.24187221
0.50274777 0.87587452 -0.23549387
0.51802981 0.88421208 -0.23773557
0.53600025 0.89653927 -0.24104995
0.53596073 0.87867481 -0.23624678
0.55521125 0.89233559 -0.23991972
0.55959624 0.88185894 -0.2371029
0.58185166 0.8992216 -0.24177113
0.58565688 0.88776815 -0.23869169
0.6029157 0.89656734 -0.24105749
0.607131 0.88581526 -0.23816662
